# .PCD v0.7 - Point Cloud Data file format
VERSION 0.7
FIELDS x y z rgb
SIZE 4 4 4 4
TYPE F F F U
COUNT 1 1 1 1
WIDTH 573
HEIGHT 1
VIEWPOINT 0 0 0 1 0 0 0
POINTS 573
DATA ascii
2083.155 654.75061 91.523605 4278190080
2102.636 661.08014 79.452667 4278190080
2576.3718 -952.25439 -127.37115 4278190080
2572.7209 -951.24554 -143.01984 4278190080
2580.2546 -954.27203 -159.32669 4278190080
2580.4534 -889.67322 -142.54179 4278190080
2602.8782 -832.47577 -128.22734 4278190080
2596.9824 -637.75653 -127.47889 4278190080
2594.2063 -637.30322 -143.30354 4278190080
2601.0552 -639.11646 -159.69725 4278190080
2604.8853 -640.24969 -175.98299 4278190080
2568.7578 -567.68536 -142.34645 4278190080
2577.6084 -569.72009 -158.70853 4278190080
2579.5166 -570.33051 -174.72038 4278190080
2588.1599 -572.36523 -191.26773 4278190080
2594.7451 -573.99298 -207.77112 4278190080
2613.0537 -966.37787 -177.45792 4278190080
2650.574 -913.30963 -162.74492 4278190080
2633.5386 -842.16809 -145.94592 4278190080
2709.8738 -865.95831 -166.8721 4278190080
2657.2454 -782.88428 -130.91367 4278190080
2659.2749 -783.6991 -147.37593 4278190080
2677.532 -789.13123 -164.87593 4278190080
2687.0322 -792.11896 -182.01884 4278190080
2666.9956 -591.49146 -329.32413 4278190080
2626.5425 -709.51666 -128.93431 4278190080
2634.4041 -711.76093 -145.53006 4278190080
2634.4282 -712.01031 -161.75121 4278190080
2642.0818 -714.25458 -178.50148 4278190080
2645.7659 -715.5014 -195.06636 4278190080
2641.623 -714.75336 -211.06499 4278190080
2611.5269 -642.06293 -192.537 4278190080
2618.0632 -643.8761 -209.17912 4278190080
2623.5232 -645.46271 -225.82501 4278190080
2624.9978 -646.14264 -242.18726 4278190080
2629.2778 -647.50256 -258.86282 4278190080
2626.6714 -647.27588 -274.88937 4278190080
2626.8713 -647.72919 -291.21606 4278190080
2614.8813 -578.46936 -225.5424 4278190080
2616.373 -579.07977 -241.85356 4278190080
2618.7371 -579.89362 -258.28775 4278190080
2637.5513 -584.1665 -276.49777 4278190080
2638.7244 -584.77692 -293.00085 4278190080
2640.7664 -585.59082 -309.64288 4278190080
2588.8987 -1019.3263 -63.90506 4278190080
2577.252 -1015.0474 -79.441963 4278190080
2572.0479 -1013.2645 -95.080925 4278190080
2568.616 -1012.1948 -110.73978 4278190080
2585.1152 -954.27203 -16.666016 4278190080
2581.1978 -952.92694 -32.479717 4278190080
2576.2417 -951.24554 -48.228207 4278190080
2573.073 -950.23669 -63.964191 4278190080
2573.9766 -950.9093 -95.605125 4278190080
2569.155 -884.63074 -15.658415 4278190080
2601.2754 -895.34595 -31.82165 4278190080
2595.3381 -893.45502 -47.676743 4278190080
2597.8428 -894.40045 -63.670723 4278190080
2583.1743 -889.67322 -79.171364 4278190080
2582.6399 -889.67322 -95.019928 4278190080
2582.9565 -889.98834 -110.90578 4278190080
2578.4358 -888.72772 -126.56573 4278190080
2602.3745 -831.59467 -64.239693 4278190080
2598.1096 -830.4198 -80.087982 4278190080
2596.614 -830.1261 -95.992722 4278190080
2599.7961 -831.30096 -112.0887 4278190080
2605.5098 -639.11646 48.068966 4278190080
2602.834 -638.43652 32.045418 4278190080
2601.0337 -637.98322 16.062386 4278190080
2606.927 -639.34308 0.10180338 4278190080
2597.1392 -637.0766 -15.833178 4278190080
2593.0974 -636.16998 -31.720392 4278190080
2585.0635 -634.35675 -47.486469 4278190080
2592.5129 -636.16998 -63.539299 4278190080
2591.1006 -635.94336 -79.415482 4278190080
2592.5112 -636.39661 -95.38459 4278190080
2589.9312 -635.94336 -111.20629 4278190080
2596.0056 -572.56866 31.506449 4278190080
2585.3804 -570.33051 15.514037 4278190080
2577.5942 -568.70276 -0.34762985 4278190080
2571.6692 -567.48193 -16.125732 4278190080
2568.585 -566.87152 -31.868019 4278190080
2566.3833 -566.46454 -47.591362 4278190080
2565.064 -566.26111 -63.31319 4278190080
2563.6487 -566.05762 -79.020622 4278190080
2565.0725 -566.46454 -94.822021 4278190080
2567.3767 -567.07495 -110.68617 4278190080
2564.6936 -566.66803 -126.34058 4278190080
2627.8181 -839.23102 -32.611759 4278190080
2609.4097 -833.65057 -48.395679 4278190080
2659.458 -782.61267 15.947566 4278190080
2653.7312 -780.98297 -0.36922351 4278190080
2653.2749 -780.98297 -49.215675 4278190080
2652.9231 -780.98297 -65.494942 4278190080
2652.4712 -780.98297 -81.771736 4278190080
2657.6899 -782.61267 -98.259628 4278190080
2657.0371 -782.61267 -114.56506 4278190080
2644.7498 -713.50653 48.787086 4278190080
2639.1892 -712.01031 32.487621 4278190080
2632.5601 -710.26477 16.252394 4278190080
2628.7366 -709.26727 0.099424317 4278190080
2623.8459 -708.02045 -15.999965 4278190080
2623.6982 -708.02045 -32.099277 4278190080
2617.6426 -706.52423 -48.089798 4278190080
2620.2024 -707.27234 -64.222061 4278190080
2645.8938 -714.00525 -81.10302 4278190080
2634.7012 -711.26221 -96.943138 4278190080
2630.1865 -710.26477 -112.94079 4278190080
2615.8762 -641.60962 64.316933 4278190080
2621.8511 -578.06238 64.002319 4278190080
2610.4473 -575.62073 47.700809 4278190080
2639.9023 -647.95587 146.03043 4278190080
2637.8301 -647.27588 129.68649 4278190080
2634.6838 -646.36926 113.33177 4278190080
2623.6499 -643.64948 96.734604 4278190080
2621.2734 -642.96954 80.545059 4278190080
2664.627 -587.82898 163.33052 4278190080
2660.6909 -586.81165 146.70879 4278190080
2655.6736 -585.59082 130.09375 4278190080
2652.509 -584.77692 113.62934 4278190080
2645.3289 -583.14917 97.065636 4278190080
2635.1096 -580.91101 80.505066 4278190080
2571.1719 -504.13889 -141.5748 4278190080
2577.1277 -505.39774 -157.77036 4278190080
2582.9812 -506.65656 -174.0443 4278190080
2583.8269 -507.0162 -190.0345 4278190080
2600.2625 -510.2532 -207.29474 4278190080
2582.6287 -443.40927 -142.66228 4278190080
2589.5913 -444.66074 -158.99168 4278190080
2597.4358 -446.06863 -175.47861 4278190080
2579.0063 -379.19781 -142.00739 4278190080
2586.9905 -380.38968 -158.37564 4278190080
2596.8484 -381.84641 -174.98077 4278190080
2604.6223 -383.03827 -191.56711 4278190080
2581.2065 -254.32697 -333.88889 4278190080
2576.7263 -315.73465 -141.8815 4278190080
2582.7532 -316.49307 -158.11559 4278190080
2586.6936 -317.03482 -174.295 4278190080
2590.5325 -317.57654 -190.5287 4278190080
2596.2515 -318.33496 -206.97437 4278190080
2567.9316 -251.72217 -141.3959 4278190080
2573.9778 -252.31035 -157.57704 4278190080
2572.9624 -252.31035 -173.36771 4278190080
2586.7568 -253.57074 -190.25044 4278190080
2583.2065 -254.32697 -318.04462 4278190080
2548.6138 -187.33174 -139.88037 4278190080
2555.6785 -187.80759 -156.00352 4278190080
2562.6409 -188.28343 -172.21861 4278190080
2572.4871 -188.93771 -188.7446 4278190080
2579.241 -189.41356 -205.15994 4278190080
2579.9229 -189.53252 -221.15282 4278190080
2598.3977 -190.72214 -238.80891 4278190080
2596.5383 -190.90057 -286.92584 4278190080
2582.8313 -190.18681 -301.46201 4278190080
2593.8125 -190.96005 -318.88971 4278190080
2553.5833 -63.425964 -330.31155 4278190080
2558.5012 -125.99963 -141.32588 4278190080
2565.5659 -126.28162 -157.51303 4278190080
2572.5278 -126.5636 -173.79216 4278190080
2577.3931 -126.77509 -190.0154 4278190080
2582.1558 -126.98658 -206.30486 4278190080
2588.8069 -127.26857 -222.8316 4278190080
2592.3665 -127.44481 -239.17183 4278190080
2568.3638 -126.7046 -268.77866 4278190080
2559.7131 -126.45786 -283.76096 4278190080
2555.9387 -126.38736 -299.229 4278190080
2550.0872 -126.24637 -314.41656 4278190080
2552.9919 -63.234333 -140.57103 4278190080
2561.064 -63.330151 -156.78452 4278190080
2566.0398 -63.394028 -172.90019 4278190080
2572.9084 -63.479198 -189.22983 4278190080
2584.657 -63.617599 -206.04829 4278190080
2591.314 -63.70277 -222.5894 4278190080
2596.8696 -63.777294 -239.12808 4278190080
2574.3284 -63.606953 -300.92648 4278190080
2567.4712 -63.553722 -316.10489 4278190080
2593.8394 0.3236917 -142.36954 4278190080
2587.927 0.25300822 -157.97697 4278190080
2585.9111 0.23887151 -173.78603 4278190080
2588.7852 0.29541829 -189.94287 4278190080
2593.5513 0.38023847 -206.3004 4278190080
2600.2065 0.49333203 -222.89464 4278190080
2590.2222 63.806721 -158.11745 4278190080
2586.2124 63.69051 -173.8063 4278190080
2598.0525 64.194084 -190.62425 4278190080
2649.3718 -456.86261 -343.18964 4278190080
2623.4998 -387.54086 -339.36612 4278190080
2617.563 -513.66998 -224.8481 4278190080
2641.6021 -518.34564 -243.25394 4278190080
2641.0388 -518.52551 -259.55429 4278190080
2641.3533 -518.88513 -275.95923 4278190080
2644.4988 -519.7843 -292.70288 4278190080
2629.9517 -517.44647 -307.43704 4278190080
2631.9209 -518.16583 -324.04974 4278190080
2608.1304 -447.94586 -192.28607 4278190080
2616.7468 -449.51019 -209.07373 4278190080
2622.303 -450.60526 -225.71979 4278190080
2655.7036 -456.39331 -261.46844 4278190080
2656.0139 -456.70618 -277.96451 4278190080
2656.2217 -457.01907 -294.47421 4278190080
2651.4219 -456.54974 -310.42194 4278190080
2651.4277 -456.86261 -326.92694 4278190080
2619.2068 -385.15714 -208.80782 4278190080
2625.7766 -386.21655 -225.55486 4278190080
2665.7971 -391.77859 -245.48553 4278190080
2638.9246 -388.60028 -275.70511 4278190080
2636.198 -388.46786 -291.78287 4278190080
2632.3892 -388.203 -307.72232 4278190080
2629.4675 -388.07059 -323.74731 4278190080
2616.4883 -322.01874 -338.4581 4278190080
2627.1682 -323.42725 -356.2446 4278190080
2619.5266 -192.62552 -338.38397 4278190080
2625.6365 -321.69373 -225.54282 4278190080
2613.1306 -320.82693 -273.00644 4278190080
2615.3584 -321.26031 -289.47321 4278190080
2612.5457 -321.15198 -305.39972 4278190080
2610.6226 -321.15198 -321.42426 4278190080
2611.3667 -255.7554 -208.18163 4278190080
2612.0256 -255.92345 -224.37161 4278190080
2623.5598 -257.43591 -290.38217 4278190080
2620.739 -257.3519 -306.3587 4278190080
2612.7295 0.69124579 -240.12827 4278190080
2630.114 0.95984304 -258.01276 4278190080
2622.9075 65.007553 -127.83205 4278190080
2617.085 64.813873 -143.64893 4278190080
2613.7676 64.852608 -207.91153 4278190080
2622.3984 65.239975 -224.80034 4278190080
2628.5852 129.77586 -127.647 4278190080
2627.7524 129.77586 -143.77328 4278190080
2624.8286 129.64923 -159.7726 4278190080
2624.7944 129.71254 -175.94212 4278190080
2626.6516 129.90248 -192.26326 4278190080
2628.407 130.09242 -208.61382 4278190080
2630.0605 130.28236 -224.99312 4278190080
2630.675 193.33916 -129.1378 4278190080
2627.844 193.16451 -145.1667 4278190080
2625.9094 193.07716 -161.22691 4278190080
2626.8586 193.25183 -177.47075 4278190080
2628.7007 193.51381 -193.80568 4278190080
2632.427 193.95047 -210.32887 4278190080
2672.7717 197.6183 -230.07144 4278190080
2576.6643 631.65698 -140.51659 4278190080
2577.6855 632.16077 -156.4416 4278190080
2585.3674 634.42786 -172.83734 4278190080
2581.3628 633.67218 -188.48573 4278190080
2578.2283 633.1684 -204.16805 4278190080
2579.8196 633.92407 -220.23129 4278190080
2718.5789 267.84384 -132.03072 4278190080
2697.8726 265.61099 -147.62033 4278190080
2658.2317 261.25696 -161.81087 4278190080
2654.2144 260.92203 -177.91859 4278190080
2668.9299 262.70831 -195.36429 4278190080
2678.5779 263.93637 -212.60338 4278190080
2680.1934 264.2713 -229.28937 4278190080
2702.3828 332.31412 -131.71732 4278190080
2693.6099 331.22839 -147.86076 4278190080
2680.7852 329.59979 -163.65947 4278190080
2673.7993 328.78549 -179.70589 4278190080
2675.6106 329.19266 -196.32657 4278190080
2680.2812 330.00696 -213.21236 4278190080
2688.7937 331.36411 -230.50191 4278190080
2701.1409 333.26413 -248.2672 4278190080
2743.9368 339.37131 -269.19574 4278190080
2685.7483 395.87607 -130.43149 4278190080
2686.8689 396.19513 -147.01663 4278190080
2678.0332 394.91885 -163.01917 4278190080
2675.9976 394.75931 -179.38203 4278190080
2674.8467 394.75931 -195.79826 4278190080
2682.4517 396.19513 -212.91141 4278190080
2681.0947 396.19513 -229.36662 4278190080
2711.0945 401.30032 -248.70357 4278190080
2713.4473 401.93845 -265.71927 4278190080
2691.2307 462.78534 -130.69855 4278190080
2683.5068 461.50366 -146.83218 4278190080
2674.7051 460.03894 -162.81609 4278190080
2667.7705 458.94037 -178.82932 4278190080
2664.6621 458.57419 -195.05125 4278190080
2665.375 458.94037 -211.5535 4278190080
2672.8423 460.5882 -228.65942 4278190080
2680.1997 462.23605 -245.86491 4278190080
2726.5825 471.20764 -267.00745 4278190080
2683.3125 527.72992 -129.84065 4278190080
2669.7646 525.04486 -145.60811 4278190080
2661.0078 523.39246 -161.51135 4278190080
2660.9431 523.599 -177.90137 4278190080
2664.6804 524.63177 -194.58228 4278190080
2661.4856 524.21863 -210.774 4278190080
2662.092 524.63177 -227.26735 4278190080
2659.6731 524.42517 -243.50801 4278190080
2659.1025 524.63177 -259.91821 4278190080
2683.0598 592.3241 -130.30052 4278190080
2669.5745 589.34674 -146.06779 4278190080
2652.1104 585.45319 -161.43735 4278190080
2653.9836 586.14032 -177.90309 4278190080
2683.908 593.4693 -196.46291 4278190080
2906.9768 648.89465 -338.82794 4278190080
3015.5874 600.64056 -313.50885 4278190080
2601.6262 -508.99435 0.55920887 4278190080
2599.6135 -508.6347 -15.392138 4278190080
2591.6011 -507.19604 -31.246719 4278190080
2585.4592 -506.11707 -47.039642 4278190080
2581.1885 -505.39774 -62.80653 4278190080
2569.939 -503.41956 -78.312012 4278190080
2571.376 -503.77924 -94.151665 4278190080
2567.8015 -503.23975 -109.80104 4278190080
2567.0796 -503.23975 -125.55471 4278190080
2606.8638 -446.6944 48.093746 4278190080
2600.1965 -445.59933 32.013336 4278190080
2584.5413 -443.09641 15.962987 4278190080
2573.7261 -441.37561 0.10542506 4278190080
2567.7522 -440.43701 -15.649654 4278190080
2560.6946 -439.34195 -31.319193 4278190080
2564.4043 -439.96771 -47.103882 4278190080
2562.092 -439.65485 -62.789188 4278190080
2565.6074 -440.28058 -78.630325 4278190080
2570.0117 -441.06274 -94.553429 4278190080
2575.304 -442.00134 -110.57605 4278190080
2577.5364 -442.47064 -126.52145 4278190080
2604.9119 -382.24368 64.506645 4278190080
2591.3843 -380.38968 48.265659 4278190080
2582.7117 -379.19781 32.254257 4278190080
2577.905 -378.53564 16.375696 4278190080
2567.054 -377.07895 0.55694616 4278190080
2556.1062 -375.62222 -15.128025 4278190080
2550.0186 -374.82764 -30.73912 4278190080
2550.7729 -374.96005 -46.403339 4278190080
2552.4219 -375.22491 -62.102238 4278190080
2553.9744 -375.48978 -77.823112 4278190080
2558.4014 -376.15192 -93.674629 4278190080
2564.7104 -377.07895 -109.66839 4278190080
2569.9292 -377.8735 -125.69452 4278190080
2600.7087 -318.00995 64.403183 4278190080
2594.0974 -317.25153 48.315781 4278190080
2586.3926 -316.38474 32.299675 4278190080
2583.5598 -316.05969 16.410765 4278190080
2575.6589 -315.19293 0.55750936 4278190080
2572.6316 -314.86789 -15.228344 4278190080
2563.5435 -313.89276 -30.904221 4278190080
2559.3298 -313.45938 -46.56031 4278190080
2558.0022 -313.35104 -62.238857 4278190080
2556.5784 -313.24271 -77.902863 4278190080
2559.0327 -313.56775 -93.697838 4278190080
2564.3687 -314.2178 -109.65373 4278190080
2569.6052 -314.86789 -125.67862 4278190080
2594.9409 -253.73878 64.261215 4278190080
2590.3049 -253.31866 48.245716 4278190080
2584.574 -252.8145 32.277233 4278190080
2571.7695 -251.72217 16.337646 4278190080
2570.825 -251.63814 0.55719292 4278190080
2556.8296 -250.46179 -15.132417 4278190080
2558.6814 -250.62984 -30.84487 4278190080
2556.4514 -250.46179 -46.507511 4278190080
2555.1218 -250.37776 -62.168339 4278190080
2553.6963 -250.29373 -77.814598 4278190080
2557.1538 -250.62984 -93.628769 4278190080
2558.5225 -250.79788 -109.40285 4278190080
2563.7744 -251.30205 -125.39256 4278190080
2586.5833 -189.41356 64.509979 4278190080
2575.9519 -188.75928 48.433041 4278190080
2567.2173 -188.22395 32.513981 4278190080
2553.3936 -187.39122 16.672115 4278190080
2544.4636 -186.8559 1.0023181 4278190080
2543.4236 -186.79642 -14.60435 4278190080
2539.2935 -186.55849 -30.162188 4278190080
2535.0684 -186.32057 -45.669895 4278190080
2534.7405 -186.32057 -61.223923 4278190080
2533.3193 -186.26109 -76.745262 4278190080
2534.7959 -186.38005 -92.360977 4278190080
2537.1733 -186.55849 -108.04032 4278190080
2541.4478 -186.8559 -123.8498 4278190080
2602.4658 -254.411 80.427322 4278190080
2589.262 -189.94888 192.01297 4278190080
2580.4319 -189.35408 175.4463 4278190080
2583.4526 -189.47304 159.73267 4278190080
2596.3442 -190.18681 144.54193 4278190080
2598.5649 -190.18681 96.727242 4278190080
2593.123 -189.82993 80.595764 4278190080
2577.6125 -126.5636 63.381783 4278190080
2568.96 -126.24637 47.400082 4278190080
2554.2129 -125.71764 31.454023 4278190080
2547.3623 -125.4709 15.738914 4278190080
2543.4133 -125.32991 0.10873164 4278190080
2543.3662 -125.32991 -15.497362 4278190080
2546.2212 -125.43565 -31.13999 4278190080
2545.9822 -125.43565 -46.762722 4278190080
2548.6445 -125.5414 -62.4576 4278190080
2546.2156 -125.4709 -78.033081 4278190080
2545.6887 -125.4709 -93.6549 4278190080
2548.0615 -125.57664 -109.40225 4278190080
2553.3313 -125.78814 -125.32968 4278190080
2591.0627 -63.606953 64.165756 4278190080
2589.408 -63.585659 48.229145 4278190080
2592.6548 -63.617599 32.376934 4278190080
2588.8049 -63.575012 16.443291 4278190080
2592.8569 -63.617599 0.55863494 4278190080
2591.8115 -63.606953 -15.344776 4278190080
2580.6702 -63.489845 -31.113285 4278190080
2572.4324 -63.404675 -46.800671 4278190080
2566.0989 -63.340794 -62.437092 4278190080
2563.6687 -63.319504 -78.119987 4278190080
2563.1411 -63.319504 -93.848892 4278190080
2561.5178 -63.308857 -109.53139 4278190080
2558.8 -63.287563 -125.14851 4278190080
2578.9436 0.06923116 64.320602 4278190080
2587.2874 0.18232472 48.644447 4278190080
2596.5356 0.30955499 32.880825 4278190080
2606.6873 0.45092195 17.011917 4278190080
2602.7429 0.39437518 1.0163041 4278190080
2605.3811 0.46505865 -110.95535 4278190080
2600.6565 0.40851188 -126.74429 4278190080
2549.2644 -125.82339 203.8871 4278190080
2550.4675 -125.82339 188.24127 4278190080
2554.5657 -125.92913 172.79024 4278190080
2561.563 -126.14062 157.47951 4278190080
2565.4746 -126.24637 141.92424 4278190080
2569.2917 -126.35211 126.3269 4278190080
2579.0046 -126.66935 110.94487 4278190080
2595.616 -127.23332 95.705116 4278190080
2589.1621 -126.98658 79.563087 4278190080
2572.9724 -63.457905 158.63274 4278190080
2604.0698 -63.756001 96.473434 4278190080
2598.616 -63.692123 80.308914 4278190080
2596.9451 0.3378284 96.667183 4278190080
2577.501 0.055094466 80.112579 4278190080
2601.2297 64.077873 64.873047 4278190080
2603.5769 64.15535 48.948246 4278190080
2605.8267 64.232819 32.997082 4278190080
2602.5898 64.194084 112.87163 4278190080
2603.2334 64.194084 96.900314 4278190080
2599.7839 64.039139 80.801781 4278190080
2624.4307 -513.31036 64.987076 4278190080
2622.813 -512.95068 48.84631 4278190080
2616.178 -511.69186 32.66716 4278190080
2608.4597 -510.2532 16.56518 4278190080
2633.1792 -450.91812 64.739807 4278190080
2661.4221 -521.04315 180.47119 4278190080
2661.4976 -520.86328 164.07722 4278190080
2661.4722 -520.68347 147.68913 4278190080
2658.3982 -519.96417 131.16254 4278190080
2664.0669 -520.86328 115.05996 4278190080
2642.113 -516.72717 97.877144 4278190080
2677.0769 -523.0213 82.72197 4278190080
2660.3215 -456.23688 196.33255 4278190080
2662.4614 -456.39331 180.07193 4278190080
2665.488 -456.70618 163.85291 4278190080
2665.457 -456.54974 147.44029 4278190080
2669.271 -457.01907 131.22765 4278190080
2669.0391 -456.86261 114.80453 4278190080
2668.7063 -456.70618 98.389206 4278190080
2656.4258 -454.67255 81.620018 4278190080
2638.1492 -387.54086 195.16516 4278190080
2638.3081 -387.40842 178.9072 4278190080
2641.3347 -387.67328 162.83717 4278190080
2639.3152 -387.276 146.46286 4278190080
2640.1641 -387.276 130.26556 4278190080
2616.2271 -320.39355 193.54666 4278190080
2615.3816 -320.17685 177.35593 4278190080
2622.374 -320.82693 161.67105 4278190080
2623.3167 -320.82693 145.57742 4278190080
2625.1536 -320.9353 129.52716 4278190080
2626.8921 -321.04364 113.45983 4278190080
2619.4688 -256.3436 193.78598 4278190080
2619.6143 -256.25955 177.6423 4278190080
2619.6604 -256.17554 161.50415 4278190080
2616.6223 -255.83943 145.20691 4278190080
2625.6975 0.7195192 -15.089438 4278190080
2621.5562 0.66297239 -31.15201 4278190080
2621.3157 0.66297239 -47.236988 4278190080
2613.9792 0.56401551 -63.150101 4278190080
2614.542 0.57815224 -79.218414 4278190080
2616.0051 0.60642558 -95.332581 4278190080
2616.9717 64.658928 17.07749 4278190080
2627.0195 65.046288 1.0221301 4278190080
2646.9612 65.821022 -15.214808 4278190080
2656.8096 66.208389 -31.576195 4278190080
2665.5576 66.557022 -48.040855 4278190080
2630.27 65.239975 -95.854561 4278190080
2630.6306 65.278709 -112.03445 4278190080
2614.8901 128.76285 65.671104 4278190080
2611.2527 128.5096 49.550068 4278190080
2611.5076 128.5096 33.526787 4278190080
2627.6316 129.5226 17.606844 4278190080
2645.6541 130.66225 1.4911138 4278190080
2671.561 132.30838 -14.8908 4278190080
2693.3735 133.70126 -31.543242 4278190080
2696.1228 133.8912 -48.122746 4278190080
2658.8762 131.61194 -96.433876 4278190080
2635.3015 130.15573 -111.77053 4278190080
2648.9812 194.73643 65.125999 4278190080
2642.3589 194.12512 48.743336 4278190080
2648.585 194.64911 32.601902 4278190080
2657.7007 195.43507 16.403912 4278190080
2677.6748 197.18166 0.094085999 4278190080
2687.5864 198.05496 -16.398031 4278190080
2657.5522 195.43507 -32.518444 4278190080
2679.8457 197.53098 -98.610847 4278190080
2631.418 193.33916 -112.99384 4278190080
2617.8767 129.0161 97.903473 4278190080
2617.4307 128.95279 81.80761 4278190080
2665.459 196.22104 81.896248 4278190080
2225.375 651.21393 235.09621 4278190080
2226.7756 651.21393 221.43713 4278190080
2227.4219 650.62317 193.92911 4278190080
2230.4744 651.21393 180.41197 4278190080
2239.1384 652.98621 139.68153 4278190080
2253.3079 657.12146 126.68826 4278190080
2259.7678 658.89368 113.14548 4278190080
2290.0081 668.05029 100.57197 4278190080
2328.7705 679.8653 87.954605 4278190080
2335.9507 681.93292 73.87413 4278190080
2509.8184 674.36169 63.930317 4278190080
2524.5876 678.46857 48.805725 4278190080
2517.146 676.27826 33.213932 4278190080
2525.9583 678.74237 17.82811 4278190080
2507.7461 673.54034 2.3148332 4278190080
2505.7896 672.99274 -13.062117 4278190080
2494.1216 669.70721 -28.304287 4278190080
2492.9392 669.43347 -43.590427 4278190080
2496.4709 670.52863 -58.97747 4278190080
2501.8301 672.17139 -74.467033 4278190080
2505.1709 673.26654 -89.955238 4278190080
2501.689 672.44513 -105.20329 4278190080
2507.7209 674.36169 -120.8766 4278190080
2446.7742 715.901 32.296555 4278190080
2453.6138 717.96863 17.328962 4278190080
2408.771 704.086 2.2392576 4278190080
2430.5894 710.87958 -27.573111 4278190080
2412.2251 705.26752 -42.166145 4278190080
2439.9402 832.5799 -42.655205 4278190080
2415.5188 650.26807 225.21346 4278190080
2439.8516 656.83905 212.38588 4278190080
2421.9353 651.36322 195.86385 4278190080
2423.0916 651.36322 180.99944 4278190080
2425.116 651.63702 166.19382 4278190080
2435.6895 654.37494 151.90756 4278190080
2439.4565 655.19629 137.12106 4278190080
2449.8579 657.9342 122.62952 4278190080
2459.2122 660.39832 107.97344 4278190080
2476.1672 665.0528 93.496262 4278190080
2500.7271 671.89758 79.056938 4278190080
2502.4163 854.82819 -13.043994 4278190080
2682.1814 263.48981 67.350922 4278190080
2682.5442 263.48981 50.892094 4278190080
2692.7427 264.60623 34.557423 4278190080
2690.9165 264.38293 18.021393 4278190080
2698.9265 265.27606 1.513196 4278190080
2686.9224 329.87122 66.997261 4278190080
2697.1887 331.22839 50.694096 4278190080
2709.3369 332.85696 34.292252 4278190080
2724.3574 334.8927 17.76218 4278190080
2736.304 336.5213 1.0483565 4278190080
2749.1384 338.28558 -15.817246 4278190080
2753.9429 338.96417 -32.744946 4278190080
2753.6902 338.96417 -49.642204 4278190080
2737.7847 337.06415 -116.61395 4278190080
2678.1975 394.2807 67.251465 4278190080
2682.5078 394.91885 50.891407 4278190080
2696.5891 397.15237 34.60622 4278190080
2717.4812 400.50262 18.195406 4278190080
2741.2344 404.33151 1.5307332 4278190080
2750.0767 405.76733 -15.340026 4278190080
2760.7891 407.52225 -32.342648 4278190080
2758.5647 407.20316 -49.246399 4278190080
2737.4856 403.85291 -65.671532 4278190080
2712.1418 400.02402 -115.04105 4278190080
2682.146 263.60144 100.29733 4278190080
2679.7312 263.26651 83.745415 4278190080
2681.2747 329.32837 116.27225 4278190080
2680.9475 329.19266 99.781364 4278190080
2682.4995 329.32837 83.36013 4278190080
2745.5442 405.44827 119.53272 4278190080
2677.1704 394.2807 100.112 4278190080
2676.7476 394.12115 83.652618 4278190080
3015.3293 597.33582 -71.847641 4278190080
