# .PCD v0.7 - Point Cloud Data file format
VERSION 0.7
FIELDS x y z rgb
SIZE 4 4 4 4
TYPE F F F U
COUNT 1 1 1 1
WIDTH 564
HEIGHT 1
VIEWPOINT 0 0 0 1 0 0 0
POINTS 564
DATA ascii
2606.572 -963.35138 -144.90666 4278190080
2602.1331 -896.60657 -127.7325 4278190080
2600.3528 -896.29138 -143.644 4278190080
2604.7646 -639.56976 -127.86207 4278190080
2602.9587 -639.34308 -143.78833 4278190080
2574.6233 -568.90619 -142.67236 4278190080
2576.6311 -569.5166 -158.64821 4278190080
2581.4702 -570.73743 -174.853 4278190080
2586.207 -571.95825 -191.12312 4278190080
2593.7693 -573.78949 -207.69283 4278190080
2604.1514 -576.23114 -224.61534 4278190080
2609.8789 -1028.2407 -128.57324 4278190080
2612.2134 -965.70532 -161.30481 4278190080
2610.2349 -965.36902 -177.26607 4278190080
2670.145 -987.22681 -197.81004 4278190080
2612.6841 -900.70355 -160.41295 4278190080
2669.4097 -919.9278 -180.35179 4278190080
2668.2529 -919.9278 -196.72758 4278190080
2609.5615 -834.53174 -128.55756 4278190080
2619.2222 -837.76251 -145.15045 4278190080
2635.4556 -843.04919 -162.27893 4278190080
2618.1975 -838.05621 -177.34615 4278190080
2666.8577 -785.60034 -131.38863 4278190080
2660.2356 -783.9707 -147.42934 4278190080
2660.2417 -784.24231 -163.80875 4278190080
2663.0271 -785.32874 -180.38931 4278190080
2681.0659 -790.76093 -198.14737 4278190080
2658.8655 -656.1153 -327.84512 4278190080
2650.4771 -588.03247 -327.28201 4278190080
2660.0701 -590.47412 -345.05188 4278190080
2643.9526 -714.00525 -129.79153 4278190080
2640.2058 -713.25714 -145.85141 4278190080
2646.0271 -715.00269 -162.46507 4278190080
2647.8792 -715.75079 -178.894 4278190080
2649.6289 -716.4989 -195.35175 4278190080
2649.3457 -716.74823 -211.68315 4278190080
2647.032 -716.4989 -227.85205 4278190080
2608.8323 -640.92969 -160.17589 4278190080
2611.6875 -641.83624 -176.44356 4278190080
2614.4409 -642.74286 -192.75227 4278190080
2621.9468 -644.78271 -209.48997 4278190080
2631.2861 -647.27588 -226.49437 4278190080
2633.7263 -648.1825 -242.99387 4278190080
2641.8784 -650.44904 -260.10526 4278190080
2657.6689 -654.52875 -278.13794 4278190080
2653.9761 -654.07544 -294.22495 4278190080
2653.0881 -654.30206 -310.61728 4278190080
2608.5737 -577.45197 -241.13145 4278190080
2622.6345 -580.70752 -258.67273 4278190080
2626.8403 -581.92834 -275.37335 4278190080
2636.7781 -584.37 -292.78445 4278190080
2644.656 -586.40472 -310.09952 4278190080
2598.73 -1023.2486 -80.107201 4278190080
2587.9197 -1019.3263 -95.670021 4278190080
2591.9507 -1021.1092 -111.7493 4278190080
2599.0898 -959.3161 -32.707497 4278190080
2594.1321 -957.63477 -48.565765 4278190080
2596.6096 -958.64355 -64.55278 4278190080
2603.8162 -896.92169 -111.80456 4278190080
2601.7639 -831.30096 -48.25275 4278190080
2604.2856 -832.18207 -64.287155 4278190080
2600.9758 -831.30096 -80.176765 4278190080
2601.3901 -831.59467 -96.169998 4278190080
2597.886 -830.7135 -112.00607 4278190080
2605.7034 -639.34308 -79.865219 4278190080
2604.1909 -639.11646 -95.816055 4278190080
2606.4734 -639.79639 -111.91905 4278190080
2606.9668 -574.80688 -0.35596034 4278190080
2600.062 -573.38257 -16.308004 4278190080
2594.0391 -572.16174 -32.187622 4278190080
2589.877 -571.34784 -48.030544 4278190080
2589.5334 -571.34784 -63.920826 4278190080
2583.2209 -570.12701 -79.626839 4278190080
2573.8782 -568.29578 -95.148849 4278190080
2578.1367 -569.31317 -111.15166 4278190080
2576.4282 -569.10968 -126.9204 4278190080
2614.991 -965.36902 -81.07045 4278190080
2658.2136 -914.25507 -32.52663 4278190080
2619.0601 -901.3338 -48.116051 4278190080
2613.9717 -899.75806 -64.06842 4278190080
2608.7864 -898.18231 -79.960167 4278190080
2608.2466 -898.18231 -95.965874 4278190080
2687.3628 -790.48932 -16.868443 4278190080
2683.7104 -789.67444 -66.259468 4278190080
2672.6721 -786.68677 -82.397423 4278190080
2663.4604 -784.24231 -98.473808 4278190080
2659.9216 -783.42749 -114.68985 4278190080
2693.4163 -725.97479 33.147202 4278190080
2672.2642 -720.48877 16.491686 4278190080
2681.9993 -722.98242 0.09361428 4278190080
2679.0442 -722.23431 -16.344683 4278190080
2670.1785 -719.98999 -32.674774 4278190080
2664.1182 -718.49384 -48.950481 4278190080
2651.1821 -715.25208 -64.985954 4278190080
2645.8938 -714.00525 -81.10302 4278190080
2643.4109 -713.50653 -97.264893 4278190080
2649.5369 -715.25208 -113.77454 4278190080
2657.7446 -651.35559 65.340172 4278190080
2671.729 -654.52875 49.280827 4278190080
2637.8945 -646.59595 32.47187 4278190080
2633.1743 -645.46271 16.256094 4278190080
2626.4065 -643.8761 0.099678494 4278190080
2620.5139 -642.51624 -15.979156 4278190080
2614.5232 -641.15631 -31.985678 4278190080
2608.4348 -639.79639 -47.919285 4278190080
2608.0918 -639.79639 -63.923439 4278190080
2654.1511 -584.77692 64.786072 4278190080
2644.7095 -582.74225 48.32185 4278190080
2622.439 -578.06238 31.823353 4278190080
2616.7104 -576.84155 15.697392 4278190080
2710.7908 -664.27472 133.26283 4278190080
2699.8804 -661.55493 116.12666 4278190080
2680.1025 -656.79523 98.807709 4278190080
2669.9495 -654.30206 82.033569 4278190080
2712.3926 -597.39215 132.86406 4278190080
2676.9636 -589.86371 114.67341 4278190080
2673.7031 -589.0498 98.102669 4278190080
2664.4685 -587.01514 81.397728 4278190080
2580.0115 -505.75739 -142.06288 4278190080
2584.0005 -506.65656 -158.19215 4278190080
2595.7402 -508.99435 -174.90594 4278190080
2582.6287 -443.40927 -142.66228 4278190080
2583.6763 -443.72214 -158.62764 4278190080
2591.5232 -445.13004 -175.07829 4278190080
2597.2952 -446.22507 -191.48564 4278190080
2601.9785 -447.1637 -207.8916 4278190080
2577.0271 -378.93295 -141.8981 4278190080
2580.0652 -379.46268 -157.95062 4278190080
2584.981 -380.25723 -174.17935 4278190080
2591.7717 -381.31668 -190.62003 4278190080
2597.4697 -382.24368 -207.07167 4278190080
2592.7971 -191.01953 -334.92706 4278190080
2590.6931 -191.01953 -350.82986 4278190080
2583.6746 -316.49307 -142.26514 4278190080
2591.6833 -317.4682 -158.66364 4278190080
2599.5876 -318.44333 -175.16576 4278190080
2606.3953 -319.31009 -191.69777 4278190080
2583.8508 -253.06657 -142.27486 4278190080
2591.8804 -253.82281 -158.67574 4278190080
2598.8118 -254.49501 -175.11336 4278190080
2602.6572 -254.91515 -191.42227 4278190080
2572.5352 -188.75928 -141.19696 4278190080
2574.6094 -188.93771 -157.162 4278190080
2581.5645 -189.41356 -173.49324 4278190080
2586.4246 -189.77045 -189.76933 4278190080
2595.1621 -190.36525 -206.42879 4278190080
2599.8142 -190.72214 -222.86095 4278190080
2604.3618 -191.07901 -239.35797 4278190080
2606.8181 -191.31694 -255.72394 4278190080
2601.7385 -191.4359 -319.86536 4278190080
2560.0029 -126.66935 -331.60001 4278190080
2563.8616 -126.88084 -348.10925 4278190080
2573.5505 -127.30382 -365.5224 4278190080
2571.4333 -63.617599 -332.6232 4278190080
2559.4353 -63.511135 -347.0499 4278190080
2549.3376 -63.425964 -361.62308 4278190080
2543.1143 -63.383381 -376.67206 4278190080
2582.4497 -126.84559 -142.65236 4278190080
2585.5159 -126.98658 -158.74086 4278190080
2588.4814 -127.12758 -174.87233 4278190080
2592.343 -127.30382 -191.11981 4278190080
2594.1101 -127.40956 -207.26175 4278190080
2595.7766 -127.5153 -223.43257 4278190080
2603.313 -127.83254 -240.1834 4278190080
2601.7903 -127.83254 -256.1525 4278190080
2563.9731 -126.73985 -316.13074 4278190080
2585.9399 -63.585659 -142.39021 4278190080
2588.0117 -63.617599 -158.43831 4278190080
2585.9932 -63.606953 -174.2477 4278190080
2588.8643 -63.64954 -190.40575 4278190080
2589.6409 -63.67083 -206.44637 4278190080
2592.3103 -63.713417 -222.67513 4278190080
2595.8738 -63.766647 -239.03624 4278190080
2601.3242 -63.841171 -255.64536 4278190080
2582.3577 -63.713417 -317.93997 4278190080
2605.7375 0.5357421 -191.18929 4278190080
2604.5154 0.5357421 -207.17419 4278190080
2661.2102 -523.56079 -327.66028 4278190080
2665.9785 -524.81964 -344.86737 4278190080
2709.6257 -533.27173 -367.43817 4278190080
2664.1709 -458.89627 -328.50009 4278190080
2663.0847 -459.0527 -344.96796 4278190080
2660.9177 -459.0527 -361.30185 4278190080
2707.5435 -466.87442 -384.57379 4278190080
2634.3125 -388.99759 -340.76645 4278190080
2639.0474 -389.92459 -357.85718 4278190080
2651.5222 -391.91104 -376.13367 4278190080
2609.3337 -511.69186 -191.91432 4278190080
2617.9128 -513.49017 -208.70448 4278190080
2633.2444 -516.5473 -226.19745 4278190080
2640.6226 -518.16583 -243.16359 4278190080
2654.7444 -521.04315 -260.90326 4278190080
2668.7473 -523.92047 -278.82532 4278190080
2667.9639 -524.10028 -295.30353 4278190080
2670.0098 -524.81964 -312.12573 4278190080
2615.4146 -449.51019 -225.12585 4278190080
2625.7859 -451.38742 -242.2601 4278190080
2666.0383 -458.5834 -295.56393 4278190080
2665.1555 -458.73984 -312.03186 4278190080
2612.9385 -384.495 -224.45015 4278190080
2632.239 -387.276 -242.39035 4278190080
2640.5667 -388.60028 -259.50778 4278190080
2648.02 -390.05701 -293.09311 4278190080
2650.1096 -390.58673 -309.79648 4278190080
2643.24 -389.92459 -325.44507 4278190080
2634.2341 -323.96899 -340.75629 4278190080
2635.0488 -324.29404 -357.31439 4278190080
2633.791 -324.40237 -373.61578 4278190080
2620.7349 -257.68799 -339.00806 4278190080
2617.6182 -257.60397 -354.94815 4278190080
2618.3506 -257.85605 -371.42319 4278190080
2617.0615 -320.61026 -208.63647 4278190080
2623.6558 -321.47702 -225.37236 4278190080
2639.052 -323.31891 -243.01872 4278190080
2641.1794 -324.29404 -308.75122 4278190080
2638.2485 -324.18567 -324.82977 4278190080
2609.3799 -255.58736 -208.02295 4278190080
2614.0112 -256.09149 -224.54247 4278190080
2617.5454 -256.51163 -241.0351 4278190080
2716.176 -264.99823 -266.94968 4278190080
2619.7988 -257.43591 -322.55542 4278190080
2621.0422 -128.57275 -274.29944 4278190080
2626.5586 -64.128624 -274.41132 4278190080
2636.6099 0.9174329 -128.50192 4278190080
2622.7927 0.73365587 -143.96309 4278190080
2613.8757 0.62056231 -159.56493 4278190080
2607.8594 0.54987884 -175.26437 4278190080
2615.1499 0.70538247 -224.17789 4278190080
2624.6777 0.86088616 -241.2282 4278190080
2641.0603 1.1153467 -259.0882 4278190080
2671.2444 1.5677209 -278.61249 4278190080
2658.8374 66.402069 -129.58855 4278190080
2627.0623 65.201241 -144.19807 4278190080
2642.0862 65.821022 -161.29128 4278190080
2614.1282 64.775131 -175.68661 4278190080
2611.0078 64.697662 -191.57677 4278190080
2609.7832 64.697662 -207.59399 4278190080
2623.394 65.278709 -224.88583 4278190080
2624.95 65.39492 -241.25323 4278190080
2646.2927 66.285866 -259.60229 4278190080
2658.4895 131.67525 -129.10367 4278190080
2647.6824 131.04211 -144.86671 4278190080
2646.7437 131.04211 -161.10986 4278190080
2641.7222 130.78886 -177.07936 4278190080
2641.5813 130.85217 -193.35834 4278190080
2642.335 130.97881 -209.72136 4278190080
2641.9927 131.04211 -226.01569 4278190080
2646.519 131.422 -242.77026 4278190080
2645.9727 131.48531 -259.10184 4278190080
2660.5244 195.95905 -130.60745 4278190080
2650.7209 195.17308 -146.43384 4278190080
2641.8181 194.47444 -162.20604 4278190080
2641.7671 194.56177 -178.48016 4278190080
2638.6353 194.38712 -194.53961 4278190080
2641.364 194.73643 -211.04425 4278190080
2642.9968 194.99841 -227.50412 4278190080
2665.3579 197.09433 -245.91695 4278190080
2376.9883 649.44666 -470.51807 4278190080
2584.4019 634.17596 -172.77264 4278190080
2584.2583 634.42786 -188.6976 4278190080
2587.8755 635.68738 -204.93349 4278190080
2577.8911 633.42029 -220.06636 4278190080
2580.3472 634.42786 -236.23338 4278190080
2591.3699 637.70258 -253.2874 4278190080
2563.7744 880.11029 -218.40559 4278190080
2715.7622 267.73221 -165.3214 4278190080
2707.7561 266.95071 -181.51559 4278190080
2673.8855 263.26651 -195.72777 4278190080
2672.634 263.26651 -212.13074 4278190080
2699.9956 266.50415 -230.98637 4278190080
2698.5276 266.50415 -247.54889 4278190080
2706.8479 267.62057 -265.07202 4278190080
2768.7927 341.54276 -151.99875 4278190080
2704.5186 332.85696 -165.11186 4278190080
2703.4546 332.85696 -181.70337 4278190080
2697.3484 332.17841 -197.92479 4278190080
2697.0708 332.31412 -214.5504 4278190080
2696.6907 332.44983 -231.18004 4278190080
2702.1274 333.39984 -248.35802 4278190080
2708.4407 334.48557 -265.70828 4278190080
2716.6133 335.84271 -283.35117 4278190080
2722.3542 401.93845 -148.9635 4278190080
2712.5208 400.50262 -165.12361 4278190080
2705.5469 399.54541 -181.36719 4278190080
2700.4448 398.90726 -197.67584 4278190080
2693.2766 397.95004 -213.7722 4278190080
2690.9307 397.7905 -230.20953 4278190080
2691.4336 398.10959 -246.89708 4278190080
2698.7102 399.54541 -264.27396 4278190080
2729.4395 404.81012 -284.20651 4278190080
2744.325 407.52225 -302.79156 4278190080
2731.6062 470.47525 -149.47108 4278190080
2715.9185 467.72885 -165.33093 4278190080
2703.0823 465.53174 -181.20161 4278190080
2697.0173 464.61627 -197.42444 4278190080
2687.915 463.15152 -213.34587 4278190080
2685.5759 462.96841 -229.75066 4278190080
2689.0105 463.88388 -246.67445 4278190080
2700.1655 466.2641 -264.41669 4278190080
2706.3147 467.72885 -281.79526 4278190080
2694.7632 465.89792 -297.31604 4278190080
2708.8438 533.30664 -147.7453 4278190080
2695.1899 530.62158 -163.59117 4278190080
2686.3254 528.96918 -179.60214 4278190080
2680.2937 527.93646 -195.72473 4278190080
2681.9685 528.55609 -212.39919 4278190080
2675.7402 527.52338 -228.43457 4278190080
2678.1858 528.34955 -245.20572 4278190080
2677.6045 528.55609 -261.72946 4278190080
2675.9482 528.55609 -278.15402 4278190080
2672.2461 528.14301 -294.35355 4278190080
2689.0317 594.15637 -163.69029 4278190080
2670.4946 590.03381 -179.01233 4278190080
2651.8713 585.91125 -194.11308 4278190080
2648.6897 585.45319 -210.22668 4278190080
2888.6064 644.54309 -336.68423 4278190080
2891.3169 645.68823 -354.99585 4278190080
2894.8767 647.06244 -373.47806 4278190080
2894.4597 647.52045 -391.49484 4278190080
2892.967 647.74951 -409.38406 4278190080
2896.1782 649.12372 -427.98187 4278190080
2607.0969 -510.07336 -47.436573 4278190080
2593.9727 -507.73553 -63.11953 4278190080
2592.5532 -507.55569 -79.004547 4278190080
2568.427 -503.23975 -94.043236 4278190080
2576.6467 -504.85822 -110.1806 4278190080
2573.957 -504.49857 -125.89214 4278190080
2605.2837 -446.38153 -15.884041 4278190080
2592.0547 -444.34787 -47.61594 4278190080
2585.7896 -443.40927 -63.373512 4278190080
2583.3774 -443.09641 -79.177612 4278190080
2576.9209 -442.15778 -94.808662 4278190080
2581.2246 -442.93997 -110.83115 4278190080
2579.5095 -442.78351 -126.61859 4278190080
2602.7368 -381.84641 0.55928159 4278190080
2593.7708 -380.65454 -15.356669 4278190080
2587.6809 -379.85995 -31.198868 4278190080
2581.4946 -379.06537 -46.966915 4278190080
2579.176 -378.80051 -62.757263 4278190080
2577.7517 -378.66809 -78.55127 4278190080
2577.2212 -378.66809 -94.366577 4278190080
2576.5938 -378.66809 -110.17834 4278190080
2575.8691 -378.66809 -125.98594 4278190080
2605.4824 -318.44333 0.5594613 4278190080
2598.478 -317.68491 -15.385246 4278190080
2595.3528 -317.35986 -31.292515 4278190080
2584.1785 -316.16806 -47.016144 4278190080
2580.8599 -315.84302 -62.798485 4278190080
2577.4451 -315.51797 -78.541878 4278190080
2576.9146 -315.51797 -94.355301 4278190080
2576.2871 -315.51797 -110.16518 4278190080
2579.5344 -315.95135 -126.16576 4278190080
2606.645 -254.66307 16.553926 4278190080
2600.7188 -254.15892 0.5591495 4278190080
2594.6946 -253.65475 -15.362278 4278190080
2588.5732 -253.1506 -31.209759 4278190080
2583.3516 -252.73048 -47.000977 4278190080
2579.0298 -252.39438 -62.753681 4278190080
2562.6602 -251.04996 -78.089111 4278190080
2575.0781 -252.1423 -94.287781 4278190080
2565.4912 -251.38606 -109.7019 4278190080
2572.7319 -252.05827 -125.83202 4278190080
2600.3645 -190.18681 1.0157334 4278190080
2593.3342 -189.77045 -14.898623 4278190080
2588.2031 -189.47304 -30.750692 4278190080
2581.9775 -189.11617 -46.522221 4278190080
2576.6538 -188.81876 -62.242771 4278190080
2569.239 -188.40239 -77.838982 4278190080
2568.7129 -188.40239 -93.602066 4278190080
2571.0823 -188.58083 -109.4895 4278190080
2571.3591 -188.64032 -125.31205 4278190080
2601.3279 -190.48421 144.81862 4278190080
2606.1555 -190.72214 129.05133 4278190080
2597.1831 -127.23332 31.976683 4278190080
2588.3362 -126.91608 15.985859 4278190080
2584.3879 -126.77509 0.10426202 4278190080
2587.3379 -126.88084 -15.77197 4278190080
2582.196 -126.7046 -31.585415 4278190080
2579.9551 -126.6341 -47.391869 4278190080
2577.6177 -126.5636 -63.172016 4278190080
2574.1848 -126.45786 -78.894493 4278190080
2573.6523 -126.45786 -94.687912 4278190080
2574.0212 -126.4931 -110.52078 4278190080
2578.2856 -126.66935 -126.55833 4278190080
2601.0864 -63.713417 -63.293697 4278190080
2594.6523 -63.64954 -79.068825 4278190080
2591.1206 -63.617599 -94.877609 4278190080
2585.4944 -63.564369 -110.56029 4278190080
2586.7649 -63.585659 -126.5205 4278190080
2607.282 0.46505865 49.017342 4278190080
2606.5339 0.45092195 33.005928 4278190080
2570.5195 -126.4931 173.86693 4278190080
2573.533 -126.5636 158.21359 4278190080
2580.4424 -126.77509 142.75003 4278190080
2584.2644 -126.88084 127.06083 4278190080
2596.9768 -127.30382 111.71532 4278190080
2666.7168 -521.04315 66.027916 4278190080
2698.5447 -526.79779 50.24548 4278190080
2652.572 -518.34564 33.116188 4278190080
2640.9211 -516.18768 16.766487 4278190080
2627.2024 -513.66998 0.56088287 4278190080
2614.3687 -511.33218 -15.481709 4278190080
2611.2734 -510.79269 -31.48686 4278190080
2674.6497 -457.48837 65.753319 4278190080
2662.165 -455.45471 49.105801 4278190080
2643.6516 -452.48245 32.541897 4278190080
2630.9617 -450.44882 16.24276 4278190080
2617.1843 -448.25873 0.10068449 4278190080
2610.0752 -447.1637 -31.930603 4278190080
2623.3474 -384.62741 32.755619 4278190080
2608.6316 -382.64096 16.566244 4278190080
2684.0625 -524.81964 148.93941 4278190080
2690.821 -525.89862 132.75751 4278190080
2691.585 -525.89862 116.24443 4278190080
2684.3833 -524.45996 99.436821 4278190080
2689.8591 -525.35913 83.115074 4278190080
2666.4739 -456.86261 163.91336 4278190080
2677.2913 -458.42697 148.09319 4278190080
2680.1226 -458.73984 131.75955 4278190080
2688.7749 -459.9913 115.65057 4278190080
2683.5117 -459.0527 98.932899 4278190080
2691.9661 -460.30417 82.706841 4278190080
2656.1746 -389.65973 163.74985 4278190080
2664.0571 -390.58673 147.8322 4278190080
2665.9041 -390.71918 131.53177 4278190080
2671.6123 -391.38132 115.38474 4278190080
2674.251 -391.64618 99.062965 4278190080
2627.1482 -320.82693 32.802513 4278190080
2621.3354 -320.17685 16.645027 4278190080
2628.8105 -256.59567 65.094887 4278190080
2620.1938 -255.83943 48.79792 4278190080
2614.4656 -255.33528 32.646034 4278190080
2623.5066 -191.61435 65.425262 4278190080
2619.8662 -191.37642 49.252041 4278190080
2614.1304 -191.01953 33.100979 4278190080
2609.2932 -190.72214 17.028532 4278190080
2651.1489 -323.96899 163.44077 4278190080
2656.0723 -324.40237 147.39029 4278190080
2660.8984 -324.83575 131.28554 4278190080
2665.6267 -325.26913 115.1271 4278190080
2666.283 -325.26913 98.768951 4278190080
2621.6494 -256.3436 161.62648 4278190080
2625.5767 -256.59567 145.7025 4278190080
2621.4451 -256.17554 129.34473 4278190080
2629.158 -256.7637 113.55737 4278190080
2608.3608 -190.96005 161.26895 4278190080
2608.8928 -190.84109 113.14403 4278190080
2617.0691 -191.25746 81.336403 4278190080
2616.5767 -127.93829 64.334045 4278190080
2608.9285 -127.6563 48.131531 4278190080
2629.0491 -64.011513 65.100754 4278190080
2621.4006 -63.926342 48.820221 4278190080
2615.6519 -63.862465 32.660671 4278190080
2612.8032 -63.830524 16.592115 4278190080
2611.8557 -63.819878 0.55987841 4278190080
2611.8101 -63.819878 -15.466178 4278190080
2614.6655 -63.851818 -31.528269 4278190080
2613.4231 -63.841171 -47.55262 4278190080
2611.9302 0.5357421 65.138298 4278190080
2609.687 0.49333203 17.031042 4278190080
2615.7417 0.57815224 1.0194236 4278190080
2623.6978 0.69124579 -15.077647 4278190080
2633.5542 0.83261275 -31.296373 4278190080
2642.3101 0.95984304 -47.618454 4278190080
2647.9658 1.0446632 -63.976261 4278190080
2647.5234 1.0446632 -80.222672 4278190080
2639.9868 0.94570631 -96.210114 4278190080
2634.3518 0.87502283 -112.19348 4278190080
2625.5771 -128.29077 96.805374 4278190080
2637.1099 -128.6785 81.029327 4278190080
2641.5933 -64.149918 81.630669 4278190080
2620.4761 0.66297239 81.441772 4278190080
2626.2034 65.046288 65.492111 4278190080
2622.5596 64.891342 49.302269 4278190080
2625.8101 65.007553 33.247124 4278190080
2625.9646 65.007553 17.134829 4278190080
2632.0159 65.239975 1.0233291 4278190080
2632.9719 65.278709 -15.132327 4278190080
2646.8179 65.821022 -31.455969 4278190080
2665.5576 66.557022 -48.040855 4278190080
2690.1865 67.525436 -65.002586 4278190080
2684.7432 67.331749 -81.355972 4278190080
2666.5708 66.673225 -113.57045 4278190080
2638.8347 130.28236 66.268837 4278190080
2636.1982 130.09242 50.019653 4278190080
2634.4597 129.96579 33.817982 4278190080
2639.6074 130.28236 17.685291 4278190080
2639.6663 130.28236 1.4886316 4278190080
2646.6116 130.72556 -14.748053 4278190080
2669.4233 132.18175 -31.259243 4278190080
2686.1445 133.25807 -47.943184 4278190080
2696.7744 133.95451 -64.689018 4278190080
2679.8538 197.44365 65.880501 4278190080
2674.2314 196.91968 49.326622 4278190080
2672.4915 196.74501 32.892689 4278190080
2674.6353 196.91968 16.505976 4278190080
2678.6709 197.269 0.093977332 4278190080
2687.5864 198.05496 -16.398031 4278190080
2696.4001 198.84093 -32.999443 4278190080
2707.103 199.80154 -49.746517 4278190080
2644.1746 65.782288 98.418098 4278190080
2634.741 65.39492 81.88298 4278190080
2644.3635 130.66225 82.645332 4278190080
2234.6489 650.91858 98.150398 4278190080
2265.7598 660.37054 85.585609 4278190080
2508.8569 674.08789 63.905979 4278190080
2515.9331 676.00446 48.639786 4278190080
2527.7246 679.28992 33.351837 4278190080
2531.7288 680.38513 17.867926 4278190080
2530.8291 680.11133 2.332459 4278190080
2522.1396 677.64722 -13.149957 4278190080
2519.1265 676.82581 -28.592062 4278190080
2509.2871 674.08789 -43.878902 4278190080
2500.3169 671.62378 -59.068947 4278190080
2488.3711 668.33826 -74.06427 4278190080
2492.6758 669.70721 -89.50457 4278190080
2493.0405 669.98102 -104.83822 4278190080
2497.1536 671.34998 -120.36555 4278190080
2425.9084 709.40271 17.137806 4278190080
2420.2356 707.63049 2.2480118 4278190080
2439.3113 713.53796 -12.704969 4278190080
2417.2151 706.74438 -27.419188 4278190080
2429.3501 769.63177 -27.558847 4278190080
2419.3457 766.46698 -57.143078 4278190080
2428.8933 652.18457 136.52904 4278190080
2447.9368 657.38666 122.53366 4278190080
2456.3293 659.57697 107.84735 4278190080
2476.1672 665.0528 93.496262 4278190080
2490.1526 668.88586 78.724335 4278190080
2707.0173 266.28085 67.970909 4278190080
2684.5315 263.71307 50.929501 4278190080
2695.7236 264.94113 34.595242 4278190080
2713.7722 266.95071 18.17111 4278190080
2717.8076 267.39728 1.5210226 4278190080
2714.7847 267.06235 -15.138103 4278190080
2671.9126 262.26172 -31.288759 4278190080
2711.6836 333.26413 67.611061 4278190080
2702.1416 331.90695 50.786465 4278190080
2709.3369 332.85696 34.292252 4278190080
2719.4036 334.21411 17.730595 4278190080
2729.3687 335.57129 1.0466921 4278190080
2740.2219 337.06415 -15.764674 4278190080
2746.0176 337.87845 -32.649586 4278190080
2752.6997 338.82846 -49.624207 4278190080
2744.4197 337.74274 -66.320908 4278190080
2706.8171 398.90726 67.965904 4278190080
2705.209 398.5882 51.318748 4278190080
2709.4214 399.22635 34.769028 4278190080
2713.5325 399.86447 18.16954 4278190080
2721.4905 401.14078 1.5225492 4278190080
2737.2434 403.69336 -15.266601 4278190080
2756.8406 406.88409 -32.295826 4278190080
2765.4739 408.31992 -49.370731 4278190080
2771.0403 409.27713 -66.481339 4278190080
2765.6465 408.47946 -83.333504 4278190080
2694.6301 264.94113 84.208839 4278190080
2700.749 331.90695 100.51545 4278190080
2715.1787 333.80698 84.370872 4278190080
2713.2561 400.02402 84.788177 4278190080
2818.2412 417.09445 105.36649 4278190080
2651.3003 653.06854 246.68806 4278190080
2648.9075 652.06091 230.08096 4278190080
2951.2571 655.3075 -125.21842 4278190080
3120.4551 619.64276 -93.527229 4278190080
